ply
format ascii 1.0
element vertex 1222
property float x
property float y
property float z
property uint8 red
property uint8 green
property uint8 blue
end_header
-0.013539 -2.589673 2.612263 41 30 22
-3.241710 -2.485449 1.662297 65 60 50
0.988079 -4.950666 2.170141 254 254 254
-0.494184 -5.213879 1.914746 170 159 146
0.101204 -3.506539 1.512723 0 0 0
-2.901565 -3.422997 1.141051 255 252 250
1.784272 -4.805697 1.359175 92 80 70
-1.116641 -5.751931 1.033662 80 78 76
-4.255478 -6.066167 0.541497 218 207 189
1.043675 -6.829885 -0.227582 153 144 131
-1.250041 -3.829117 -0.123006 166 157 144
-1.931760 -7.954382 -0.705320 64 53 37
-0.106107 -0.196534 4.125571 161 153 138
-3.075854 -0.075117 2.677282 182 180 184
-1.340729 -1.167615 3.025362 212 202 181
-2.875039 -0.483683 2.635756 190 186 194
0.125255 -2.659234 2.512706 198 192 182
-3.348938 -3.170881 1.907630 87 77 54
1.955437 -4.345169 2.277129 255 251 244
-2.784040 -4.496177 1.412965 249 245 243
-1.141868 -4.531879 1.291880 237 235 236
-2.667930 -3.895215 1.003063 104 100 102
-3.673350 -6.925850 0.280612 138 130 113
-2.677880 -8.668309 -1.032203 121 113 98
-2.746345 0.100992 0.107601 124 114 108
-1.142347 -3.269304 -1.501636 88 81 80
-3.293095 1.876079 -0.973354 75 71 71
-1.083220 1.073240 3.241169 251 245 235
-1.357756 -0.391553 3.536657 123 108 101
-2.083789 -0.431705 3.275920 106 97 84
2.190019 -1.248256 3.624989 41 29 24
-1.369530 -1.069439 3.028233 215 202 182
-4.266421 -0.801395 2.676810 157 149 150
-2.860097 -0.604088 2.568708 167 160 163
-4.029155 -0.937517 1.971779 241 239 226
-1.964790 -2.575428 1.905230 92 86 74
-3.066290 -2.832345 1.274014 122 115 117
-2.546943 -4.963699 1.395823 255 253 248
4.322158 -8.139046 -2.084342 0 0 0
2.077234 -4.746735 -1.582782 60 35 16
-0.366611 0.848128 4.196536 157 141 126
-1.712472 0.375396 3.962920 160 147 127
-2.524704 0.325293 3.560954 120 107 85
1.357678 -0.259951 3.934187 88 77 67
-1.706092 -0.274708 3.317062 104 94 76
-4.144269 -1.034023 3.007919 94 81 58
-0.698052 -2.779191 2.971591 66 51 36
-4.038397 -0.847378 1.936903 108 106 93
-2.287955 -6.030839 1.202561 132 125 118
-1.466471 0.883365 -0.915412 203 189 176
-0.070057 -0.202417 4.204728 155 145 129
-0.146553 -0.202754 4.115088 232 223 210
-0.209017 -0.244757 4.098586 231 223 208
-0.809050 -0.637477 4.070179 239 233 221
-1.374057 -0.949872 4.007231 191 178 158
-2.656073 -1.168951 3.737036 224 214 200
0.071604 -0.168590 3.560859 255 253 253
-0.362422 -1.108820 3.184550 129 118 106
-0.116605 -3.106995 3.207987 72 61 49
-3.721184 -1.319810 1.699851 75 65 49
1.332704 -4.992181 1.840421 91 83 82
3.126365 -6.132555 0.588289 0 0 0
-1.920018 0.139661 3.375754 126 110 96
2.193987 -0.792422 3.559691 49 43 37
-0.018982 -2.547508 2.399960 54 44 38
-1.192634 3.294738 0.841110 142 136 129
-1.256970 0.789209 -1.228571 109 83 63
-2.419061 0.665021 3.781856 90 73 45
-1.199646 -1.824290 2.642357 123 112 96
0.227275 -5.070502 1.774918 124 115 102
-1.576665 -2.526008 -1.687713 96 81 70
-2.488668 1.411210 3.761621 119 106 85
-2.488667 1.409001 3.762953 119 106 85
-4.284120 -0.522954 2.845424 230 220 202
-4.319013 -0.947939 2.900781 236 228 209
-2.445452 0.841505 3.568059 132 119 92
0.297812 -5.305865 1.105615 75 70 60
0.191266 -5.834135 0.890290 199 189 175
-1.527629 -7.678032 0.237112 91 80 68
-0.109668 -4.853850 -2.687149 114 108 104
-2.570714 1.367699 3.752407 71 61 43
-0.415071 1.070421 4.297013 90 74 62
0.039673 1.035275 3.754048 75 63 58
-2.468578 -8.582747 -0.488243 102 94 77
-2.171431 -8.851534 -0.808875 175 169 155
4.565403 -2.898978 -0.194128 98 92 78
-3.354343 2.603349 -0.746762 123 104 84
-1.911261 3.952315 -0.212307 159 142 114
-1.062605 -2.250106 2.896942 107 94 72
-1.434183 3.719596 -0.276722 156 139 111
-4.465241 -1.282965 2.575582 255 255 255
-2.088444 -6.035688 1.411903 106 95 78
-0.122135 -5.035919 -1.830273 30 28 25
-3.628431 -4.680230 -0.336826 57 57 58
-10.614491 -5.276218 0.252870 104 96 77
-2.451573 -4.877443 1.488364 134 109 64
-6.165364 -1.265624 1.724736 127 122 103
-3.476753 -7.135883 0.170966 213 205 186
-3.536141 -2.220483 2.232459 76 59 33
-6.156113 -1.516838 2.587361 141 128 105
-6.030889 -1.401294 1.694493 70 67 56
-7.977595 -3.347765 0.568437 146 137 114
-2.225578 -0.655106 3.160668 119 113 99
-3.989424 -2.146169 3.820133 179 176 181
-4.489784 -0.778918 2.678795 93 76 52
-3.483173 -2.231807 1.486910 72 62 46
-3.437378 -7.051656 0.260985 202 196 182
-4.385747 -4.261128 1.015697 151 142 121
-2.447927 -1.032120 3.153794 255 255 255
-2.545112 -4.863264 1.585249 111 89 55
-5.001854 -2.955092 1.062683 122 112 91
-2.328326 -1.064427 -0.832043 82 70 63
-2.134251 -2.701426 2.016797 102 96 84
-0.401542 -5.523200 1.746938 128 119 108
-1.544754 -3.472346 1.624158 185 179 169
0.701972 -0.558996 -1.509372 128 102 83
-3.770228 -1.830587 2.707063 129 118 102
-5.521054 -2.308434 2.508402 254 250 252
-0.402733 -5.463807 1.774739 255 249 240
-1.092899 -7.857228 -0.172418 197 192 180
-11.765660 -7.402537 -0.409568 49 38 23
-4.156632 -1.127362 3.054941 120 111 100
-2.207662 -1.994417 2.139068 58 47 35
-4.032514 -1.130879 1.894803 130 127 119
-2.311164 -5.160223 1.779925 98 89 76
-4.085041 -6.019422 1.742069 176 161 140
-0.492762 -5.803062 0.904322 73 68 58
-1.106332 -1.246727 2.785080 123 112 94
-5.360687 -2.729124 1.547385 152 147 135
-5.640697 -2.674107 1.314488 137 124 104
-3.963170 -6.453506 0.482756 255 252 242
-6.685180 -6.200217 0.330138 58 47 31
-1.025029 -7.735181 -0.112383 100 95 83
-2.503353 -5.081944 1.831518 133 123 109
-3.221070 -6.898725 0.480108 185 178 163
-0.869685 -1.501416 2.628202 121 105 89
-2.382217 -1.743961 3.205593 167 153 131
-1.457194 -1.813562 2.458754 130 118 99
-3.765316 -1.434366 1.810605 99 81 63
0.405575 -5.274566 2.539736 116 102 77
-2.160764 -5.958195 1.519623 113 100 80
-2.683162 -6.044490 1.000887 97 94 97
0.247253 -1.840402 4.200922 255 253 255
-3.266921 0.323952 2.792451 95 89 81
-3.063912 -0.090496 2.667932 201 198 203
-2.836932 -0.570416 2.457554 170 159 149
-4.121049 -0.893150 1.941654 244 240 224
-3.996635 -0.925668 1.944636 135 130 116
-3.457340 -2.306470 2.172591 73 64 37
-2.091925 -2.407993 1.949806 197 192 174
-0.989852 -5.529535 1.863219 255 253 248
-4.569176 -3.869383 1.114435 228 226 217
0.882983 -6.000989 1.313061 36 33 28
-4.581448 -3.878425 1.013849 224 225 218
-0.820294 -5.116933 1.060395 243 241 238
-1.005622 -0.571612 4.070767 241 234 223
-4.266898 -0.510974 2.677990 129 120 111
-2.658418 -1.233580 -1.870380 110 108 105
-1.611686 0.156573 3.877286 153 138 116
-1.605583 -0.357129 3.313881 164 154 134
-0.354620 3.206168 0.981636 91 84 78
-0.772175 -4.287551 -1.646194 152 145 141
1.729231 -0.179271 -1.029890 60 45 34
-2.450358 -1.001925 -1.724517 85 85 81
-1.035921 -0.032383 4.079737 179 168 152
0.255603 -0.159928 4.284614 0 0 0
-4.901145 -4.331637 1.877620 88 79 56
-4.650672 -3.887912 1.021289 98 95 88
1.393837 -0.404265 3.962437 87 77 63
0.637772 -0.263462 3.211731 73 57 43
-4.258208 -0.609152 2.662280 205 195 192
-1.130522 -5.449204 1.506171 0 0 0
-2.268507 -1.509381 -0.936902 136 116 102
0.237430 1.099265 3.710171 100 89 75
-3.317866 -6.765898 0.948007 117 109 94
-3.702651 -1.669678 2.798594 158 151 144
-4.631665 -4.386425 0.963609 197 199 199
-2.061776 -3.328812 3.059124 0 0 0
-1.936373 -1.093675 3.168038 92 86 74
-4.339234 -5.290204 0.779873 70 60 47
-3.268656 -3.689421 2.175458 51 44 34
2.461997 -3.278955 2.386957 86 75 60
-0.690347 -3.092763 2.377601 126 119 107
-0.622027 -3.316772 2.337711 120 108 98
-2.182591 -0.132029 3.333614 73 58 51
1.382878 -1.101121 0.026227 171 161 147
1.683248 -4.327202 2.745592 140 129 117
1.264040 -7.065797 0.402547 150 142 127
-2.932688 -8.354657 -0.255010 85 75 52
4.128066 -6.168752 0.496080 17 8 2
1.298836 -2.155255 3.153964 108 97 84
-3.030659 -3.614270 2.222020 86 71 51
0.762330 -4.724113 2.095286 255 253 249
-1.006448 -4.387728 -2.817021 85 79 73
0.568789 7.734629 1.308334 69 62 46
-1.277287 -0.385439 3.417449 255 253 249
-1.286864 -4.375855 -2.876797 33 30 25
-0.235860 0.626865 -1.219812 143 119 92
-1.699442 -0.349490 3.307807 105 94 74
-0.329470 -2.631277 2.337958 42 34 33
0.533643 7.732512 2.091937 83 78 64
-1.936801 -7.438225 -1.910438 165 154 140
-3.592103 -6.394265 1.311752 154 147 140
-2.208239 -1.021284 -1.697951 31 28 21
-6.485574 -1.856173 1.637376 156 149 150
-2.587198 6.187391 4.404490 42 40 25
0.088874 -2.598411 2.775420 102 89 84
-2.807413 -7.846146 -0.553979 78 69 58
0.909504 4.899103 3.097409 34 39 54
0.094574 -5.296180 1.821128 58 48 32
-0.427659 1.722192 -0.891565 0 0 0
-1.047488 0.376575 0.735550 74 41 35
0.732398 2.269789 -0.629981 140 123 99
-3.283127 -7.465373 0.275922 179 172 157
-0.571314 0.757205 0.208610 182 156 149
-0.896031 4.178935 -0.079692 144 126 102
-0.292920 1.172794 -0.986235 183 148 125
-7.681374 3.360736 4.153272 169 162 156
-0.693561 -3.869211 -2.667667 23 17 13
-2.722185 -0.096866 -0.459858 58 39 21
-8.257449 4.379549 3.470932 118 111 89
1.698970 -6.745572 -0.078493 121 110 92
-4.590144 -4.371824 2.059132 29 23 14
-2.632836 0.425779 -1.402770 34 30 28
-4.368078 -0.389024 2.744390 174 151 125
0.786250 7.249866 1.743748 28 22 15
-0.258844 4.220187 -0.044063 136 123 88
-4.051665 -1.124207 1.981904 229 226 218
-1.356721 0.730042 -0.054911 84 49 43
-0.263437 -5.506394 1.477795 199 194 188
-4.334514 2.787219 3.563584 211 209 209
1.343515 -5.708411 -3.181775 92 73 55
-4.990528 4.056931 4.400170 62 61 51
-3.316905 2.935864 5.033682 124 109 88
0.921857 -5.770923 1.301469 37 31 31
-4.232001 0.114907 1.783807 145 135 117
-1.606369 4.287250 5.524975 126 109 83
-1.080417 -1.244634 3.284678 65 58 51
-7.844185 2.627823 3.157225 128 123 115
1.700653 -0.145195 -1.329867 176 150 126
-9.577203 -0.665394 1.849029 66 52 27
1.432746 -3.752362 -2.585920 48 29 9
1.547801 -4.505052 2.315243 254 252 250
-3.353087 0.085736 -1.328995 175 171 148
-1.579079 1.815420 0.321687 88 91 84
-0.967271 -5.113181 1.588020 196 184 182
-3.370890 0.103055 -1.378151 153 148 132
-7.970376 5.142305 3.191588 117 108 85
-1.370872 -4.041667 1.449041 255 252 250
-3.312858 0.182562 2.869623 205 200 188
-0.805322 -5.107033 1.097213 73 70 63
-4.064627 -1.032350 1.928294 106 107 97
-1.178516 0.335304 0.744377 188 154 148
1.198060 -6.604351 -1.703428 157 147 131
1.034581 -4.673269 1.388141 77 71 61
0.039418 -5.942003 0.769701 60 49 37
-7.998303 5.491844 2.754557 199 194 184
-0.418320 0.928191 -0.031287 50 31 16
-0.175163 -6.378612 0.653731 97 91 83
-3.072242 3.345215 4.937377 0 0 0
-3.415293 3.542619 5.236118 196 183 161
0.156887 -2.575713 2.461175 113 104 91
-1.575567 -3.399244 1.481677 87 79 70
-7.462757 -2.357692 1.419258 252 249 254
-5.224883 4.928937 4.422488 130 120 98
3.059786 -1.215282 2.343007 48 38 32
-7.937946 -2.514548 1.384623 216 212 217
0.477541 6.114914 4.442458 59 50 37
1.067786 -6.786729 0.114940 87 77 63
-4.920721 4.314953 3.220842 94 89 69
0.649592 6.060537 4.197819 114 106 93
2.851570 0.672225 -0.876050 107 100 93
0.476000 -5.659617 0.409750 66 55 43
0.095864 4.093793 -0.002927 155 126 102
1.185461 0.809697 -1.091517 118 105 85
-1.832206 2.848192 -0.616716 159 145 118
-1.417281 -1.335072 2.973324 67 56 39
-4.627770 3.875841 2.678840 196 192 172
-1.951661 3.824985 -0.293763 130 112 88
-2.512347 0.272435 3.565553 116 107 86
-1.263352 -4.683916 1.238804 92 85 74
-2.325437 0.703391 3.516994 68 55 35
-5.576585 4.663914 2.922354 0 0 0
1.735417 -4.972813 1.807043 139 132 125
-2.060768 0.697159 3.139636 150 143 136
-7.784609 4.736176 3.030351 217 213 190
0.058147 -5.517434 1.120390 209 200 189
-1.302829 -5.939999 0.961301 181 179 173
2.282741 -2.895301 2.496825 20 17 13
-2.640255 -2.199944 2.286397 192 178 164
-4.814903 3.847107 3.999789 119 121 106
0.946988 8.901668 3.004982 134 129 113
-2.375062 -4.991067 1.441689 140 122 85
-2.595621 -4.965489 1.405893 210 192 174
-6.631363 -0.342451 2.274532 138 125 94
0.325718 5.459608 0.511285 59 48 30
-5.914154 -2.121831 1.811016 252 252 241
-8.126031 4.424933 3.660006 140 135 117
-0.610255 3.794667 -0.193638 137 120 92
-3.419915 -7.116790 0.171135 97 86 74
-7.685926 4.691759 3.158610 160 156 140
-0.384306 2.229481 -0.679928 148 130 102
-4.694243 -4.935413 0.559128 249 240 224
-8.587491 -2.388421 1.387460 61 53 32
-4.462744 3.072192 4.791162 222 212 194
-2.020946 0.746771 3.130701 61 59 48
-5.656143 -7.037604 0.191936 200 196 194
-5.377366 2.562929 4.494804 188 179 156
-2.420334 0.621881 3.097899 59 57 46
-8.815211 -8.581308 -0.888270 224 218 214
-4.056115 -1.124797 1.974111 230 227 220
-2.250612 -1.298623 -0.854327 130 112 92
-1.467760 -1.723883 2.500074 59 48 34
-2.575649 0.514367 2.979844 57 51 23
-6.691509 -2.093564 1.647343 112 113 116
-7.954159 3.739776 4.061565 52 46 34
-0.507609 -2.799559 2.246282 40 30 16
-9.668693 -3.727906 1.113620 169 163 159
-6.114941 3.829433 2.923779 161 157 131
-1.657276 -5.860618 2.158298 144 136 117
-3.519455 2.859374 -0.687330 104 95 85
-8.648123 4.925800 3.014697 113 105 88
-5.122477 -3.295238 -0.369567 144 89 71
0.594098 1.441220 -0.875311 128 113 92
-8.272733 5.115952 2.920231 157 150 126
-4.233185 -1.955053 -2.063051 138 136 134
-2.531324 0.480212 3.311237 123 113 89
0.080551 3.554069 -0.196723 144 116 88
-3.640041 -1.519060 2.898710 255 251 255
-4.170577 4.691724 4.748243 120 109 91
-0.203929 2.892200 -0.477343 130 113 87
-3.948041 -1.061102 1.817908 210 207 202
-6.607780 -7.931154 -0.328662 114 108 101
-2.238513 -0.390242 3.228340 110 100 84
-3.267574 3.601521 5.263072 192 183 154
-4.165359 -4.852768 -0.721362 126 119 113
-2.623888 1.493036 3.789790 65 51 36
-3.592748 -1.135580 3.284225 152 146 134
-3.271375 1.580947 4.011172 112 100 74
-3.065154 -1.392477 2.928959 171 167 174
-4.392522 1.835709 4.288168 0 0 0
-5.646678 1.858695 3.482887 180 176 176
-4.032659 -4.149938 2.210712 94 83 69
0.873555 -1.100380 -0.561163 0 0 0
-5.751660 3.071578 4.249792 147 138 129
-6.877758 -0.780951 2.081732 50 40 17
-2.361978 -1.247459 -0.879356 114 95 83
0.374439 6.026346 5.322546 89 84 68
-9.435397 -0.769424 1.818583 132 118 93
-1.395437 -1.283096 2.968894 83 73 53
-4.414720 2.939375 3.760827 156 150 140
-0.990078 0.769799 0.146281 45 33 29
-3.425630 -0.419169 2.941199 75 65 51
-3.105114 7.058311 6.309398 0 0 0
-2.072843 -2.910278 -0.946376 79 41 69
-1.510421 0.637102 -1.244893 130 110 87
-7.934250 5.273835 3.394245 0 0 0
0.893413 6.028693 4.366368 57 51 37
-2.864225 -8.166183 -0.203021 89 81 64
-0.083748 1.242766 -1.020888 155 140 121
-4.611135 3.990235 3.484941 169 162 137
-2.140302 -8.369690 -0.551156 150 139 127
-0.091587 1.152398 -1.073019 150 132 112
-7.992218 4.344066 3.899631 193 184 163
-8.785475 -6.967605 0.041062 112 98 81
-4.649386 4.060188 2.894108 182 178 162
-7.995587 4.443482 3.657068 202 196 173
-3.432869 -2.639163 -1.526899 141 140 143
-3.780735 3.105705 4.663127 0 0 0
-4.395351 -1.193807 2.917516 200 192 173
-3.331600 0.364192 3.508009 0 0 0
-2.848475 -8.404163 0.816493 74 64 58
-3.355672 -0.547848 2.849525 103 94 83
-3.425944 -2.203024 1.527481 91 81 65
-1.170396 2.519585 -0.845660 142 128 110
0.006649 3.448777 -0.238893 117 90 67
-6.128423 -1.278044 1.878451 157 152 138
-4.568753 3.678680 4.484050 168 158 147
-8.435823 -1.683323 1.663040 48 41 25
-4.151291 -0.911052 1.911781 221 213 195
-5.263955 6.137208 3.627046 189 184 171
-2.695375 0.189050 -0.430567 54 43 32
-7.903453 3.222366 4.212920 82 75 69
-1.275303 0.575087 -0.023510 185 153 150
-5.067920 -3.073773 1.409270 180 169 150
-4.350727 4.229908 4.211198 226 215 197
-1.067220 0.626564 0.026934 89 43 41
-9.291088 -3.381485 1.062757 255 254 255
0.764940 5.612094 3.727379 125 117 98
-4.525106 0.158058 2.237032 58 46 23
-1.631916 0.839659 3.190235 135 129 121
-1.122477 0.621954 -0.037645 77 43 41
-3.336142 3.247271 4.285783 107 97 74
1.351914 -0.847129 -0.327705 129 104 102
-6.167387 -1.215458 1.937790 101 88 70
-1.308569 0.522061 0.108897 82 45 42
-0.128881 1.119591 -1.052131 123 100 80
-0.652332 0.747746 0.132461 164 138 133
-7.799271 4.702983 3.122105 217 214 199
-0.550221 0.704296 0.390118 167 128 132
0.373798 1.843211 -0.785500 154 135 111
-5.432651 2.915626 4.244090 254 251 252
-1.346858 0.565549 -0.033086 76 45 43
-4.224835 -0.784135 2.664446 216 198 178
-0.866454 2.991929 1.604594 220 178 176
-4.291673 4.690924 4.354290 44 41 30
-0.775275 0.732494 0.021927 196 156 149
-3.967323 -1.147595 1.800368 152 144 134
0.690132 7.158422 1.525473 76 74 61
-0.548105 0.797827 0.123136 186 152 151
-5.103327 -2.980325 1.401932 81 73 60
0.460256 1.414420 -0.922502 161 144 122
-4.089612 -1.012496 2.012186 220 214 203
-0.777884 6.663703 0.746315 111 102 78
2.215949 2.330252 3.327540 42 38 24
-0.628123 0.796168 0.021062 190 158 157
0.239889 6.502385 0.738416 58 49 36
-0.787514 3.243266 0.864445 221 178 176
-3.381962 -0.001456 -1.363773 153 144 135
2.385422 3.596300 0.680631 43 37 32
-2.212647 0.680054 3.021199 0 0 0
3.485837 -0.399276 -0.560776 32 26 16
-1.747948 -1.132908 3.361925 112 101 87
3.526516 1.128610 0.364501 100 90 76
-5.168402 0.777255 3.390291 154 142 114
-2.360277 1.499192 -1.010817 143 126 98
-3.178450 3.581854 -0.391484 140 121 99
-2.371736 1.098569 3.694686 102 91 73
-1.799147 1.757458 -0.929656 155 137 111
3.274420 -0.102553 2.816080 41 35 31
3.855049 -1.191994 0.368185 175 164 152
-0.556965 3.243140 0.871884 195 149 147
2.123426 2.369492 0.772579 56 57 59
-7.215072 3.036360 3.568249 124 116 101
-7.654086 3.807857 3.886491 108 101 79
-3.324446 -4.508107 2.224484 64 54 31
-1.149156 -5.863172 1.386917 254 248 249
-4.019722 -1.008294 1.857400 112 109 102
-4.230836 5.764942 1.460100 60 57 49
-8.347957 5.018339 2.709073 171 166 146
-4.470240 0.126255 1.956346 161 149 127
-2.309783 -6.412018 1.105377 254 251 247
-2.611650 -4.068621 0.946334 241 232 219
-0.540157 4.190917 -0.057731 142 129 98
-1.197259 3.156704 -0.424935 126 107 86
-4.002107 -7.628349 1.123514 251 245 238
0.611970 1.789298 -0.796637 124 103 84
-0.087084 3.398539 -0.274209 114 94 69
-3.123163 -6.659679 0.919652 91 89 89
0.612862 1.782051 -0.790805 124 103 84
-1.351713 2.509720 -0.648833 157 137 112
-5.491286 -2.482287 1.662123 124 119 109
-2.010977 -5.323466 0.593133 234 228 221
-4.377718 -5.838498 0.307415 255 251 255
-6.040732 3.415291 3.298743 181 174 152
-0.181474 2.265347 -0.682230 113 95 71
-9.234765 -7.155278 -0.158492 52 47 29
-9.085268 5.029584 2.962785 163 155 134
-2.291478 1.222070 -1.149851 143 126 98
-8.565630 -8.641538 -0.745771 253 251 246
-2.719850 -0.076156 -0.436586 92 72 57
-4.123158 -1.772216 -2.020834 7 7 6
-0.062131 3.341360 0.789998 50 47 40
-2.388573 -4.091869 2.401700 115 102 86
-4.250467 -0.511920 2.688126 110 96 71
-4.242545 5.865929 4.369555 154 148 133
-1.067234 0.137007 -1.430224 129 111 87
-4.250467 -0.511920 2.688126 110 96 71
-1.262418 -5.977112 1.301420 254 253 254
-2.178322 -6.010789 1.527532 106 100 90
-5.912201 2.769655 3.034487 0 0 0
-2.198694 -6.246702 1.121115 253 249 247
-2.848988 6.514213 4.357069 170 161 152
-6.323830 3.154540 4.199373 170 157 134
-2.037390 -6.008983 0.989969 149 143 139
-0.127040 2.958210 1.769378 186 180 170
-4.175917 4.389351 4.589726 89 83 69
-4.416197 0.009360 1.759627 184 175 154
-8.547795 -2.979721 2.590068 235 234 225
-3.464102 2.866004 -0.676555 0 0 0
-4.591516 4.413316 4.068891 92 85 62
-5.462181 -2.603064 1.338002 66 61 49
-2.611915 6.046588 4.269535 0 0 0
0.424145 7.041691 4.318578 139 130 117
-9.074662 -7.282662 -0.219584 190 179 163
-4.834624 4.956649 2.092147 203 199 183
-1.371924 -3.491162 -0.961450 161 157 155
-0.916383 -4.019407 -1.629235 135 129 125
-3.359770 6.267222 0.194224 138 122 92
-3.651299 -4.290479 -2.656519 137 133 133
0.484366 1.862910 -0.785298 152 134 108
-0.983671 0.428274 0.700520 87 41 35
-4.359177 -1.847866 -2.070698 49 50 43
-0.361534 0.990520 -1.131610 170 153 127
-1.370343 0.336809 0.598858 87 46 44
-4.275625 -1.536841 -1.943184 52 51 46
-2.030949 -2.808851 -2.290847 28 22 16
-3.450865 0.481502 2.419297 80 60 35
-5.421390 5.331670 1.838428 0 0 0
-0.053507 3.641933 -0.162477 149 117 88
-1.222770 -5.915142 1.370032 253 253 253
-1.148279 1.333553 -1.077788 158 140 112
-0.049650 3.627786 -0.169139 149 117 88
-2.449634 -5.996918 1.529528 255 251 247
-5.962831 -2.032405 1.735602 220 219 213
-4.011921 5.719743 0.350243 119 112 100
0.104130 1.747461 -0.829382 146 128 100
-5.898274 -1.937907 1.730370 100 99 93
-4.068963 3.153013 0.513253 49 47 38
-1.369234 1.138837 -1.086929 117 96 74
-8.116519 -2.513725 1.422707 79 74 54
-0.315255 3.075294 1.335318 153 124 114
-1.781038 -8.096507 -0.320463 150 139 127
-9.042720 4.718588 3.262531 85 79 60
-0.532911 1.882774 4.867310 66 54 42
-7.658043 -4.079992 0.976178 50 37 17
0.212868 3.515412 -0.215016 77 62 39
-1.801290 -2.650696 -0.879687 43 26 41
-0.551027 2.959742 1.660038 221 180 172
-0.569560 2.515533 4.291467 56 45 31
-6.161572 -3.883275 -2.145629 105 103 102
-4.250010 5.467102 4.157031 141 133 119
-7.666683 3.215362 4.161152 74 68 64
-2.247025 -0.021110 3.006080 202 190 173
-1.053547 3.948294 -0.118544 164 144 122
0.771658 5.489562 4.451817 60 56 54
-0.482910 -2.667716 2.338972 42 36 22
0.692104 1.824760 -0.786422 94 84 70
-8.611959 4.299473 3.491918 218 209 186
-3.006172 -1.825917 2.585388 115 105 100
-2.424667 -2.093546 2.344510 81 66 49
-5.445722 5.692530 1.096792 39 37 29
-8.118999 5.014508 2.969876 108 101 76
-3.681307 -1.864428 2.830011 111 101 95
-1.029278 3.421501 0.364868 133 118 95
-1.264942 0.506151 0.179786 90 38 34
-3.328763 -2.496551 2.147523 78 64 47
-1.277204 3.095058 1.364707 99 99 85
0.112072 3.560501 -0.153238 136 105 76
-3.324023 -2.491485 2.144243 78 64 47
-0.691669 0.769856 0.021152 145 118 118
-1.016803 1.840078 -0.859205 134 110 92
-3.307556 -2.421098 2.078859 0 0 0
-0.548298 0.798283 0.123095 178 143 141
0.642048 2.120818 -0.680815 106 87 66
-2.494987 -4.953397 1.707425 112 98 84
-5.861465 -1.813396 1.655808 217 218 222
-2.256599 0.761909 -1.285382 124 106 80
-4.127969 -0.901913 1.957959 0 0 0
-4.042741 4.141370 3.989365 121 117 105
0.261761 1.419859 -0.893495 117 98 77
-2.376811 -4.925467 1.405364 204 184 158
0.988387 -1.099545 -0.312394 77 47 48
-2.224012 -6.315567 1.068114 103 97 93
-4.503840 0.107279 2.315851 231 223 208
-5.450797 2.971819 4.214080 255 254 255
-6.289873 -1.061144 2.166792 190 180 157
-3.580959 -6.666837 0.339481 250 241 228
-0.728024 0.753016 0.020871 85 50 46
-0.389231 1.061744 -0.997328 179 142 115
-4.307420 -6.477630 0.466722 197 188 175
-3.692741 1.328078 3.148242 69 63 52
0.228957 1.363656 -0.985071 0 0 0
-6.172957 -3.696803 -2.075791 117 114 109
-8.922292 -1.239214 1.831746 66 50 24
-0.253615 0.354958 -1.300781 170 152 124
-1.216488 -4.410055 -2.841478 19 15 13
-9.871103 0.895844 2.528062 61 55 41
-1.954578 -2.917161 -2.431264 113 110 105
-5.610720 2.593318 3.580506 118 112 110
-8.179380 3.824902 3.921336 62 56 46
-12.511056 1.538382 -3.237670 25 18 13
-2.273144 -0.485109 3.196339 188 179 166
-8.004642 5.020644 3.545321 102 95 72
-0.144819 2.894340 0.366421 109 97 68
-0.711116 -2.152143 2.204336 54 45 36
-4.243302 3.797021 4.611725 129 118 95
-0.008204 3.576774 0.191899 50 39 21
-1.344890 -3.751525 2.617647 58 46 34
0.396476 1.785997 -0.802319 156 138 118
-1.429405 0.572094 -0.118343 156 150 140
-3.054244 -1.433029 2.927307 0 0 0
-3.303873 0.180509 2.861485 187 182 170
-2.519642 -1.170763 2.319765 133 127 117
-7.838064 2.628275 3.116423 221 211 195
0.454243 0.642763 -1.179368 114 95 75
-3.951777 -1.157684 1.749812 226 220 210
-2.367754 -1.026620 3.132119 155 153 160
-1.606311 0.757721 -1.196836 125 108 87
-3.187868 -6.701058 0.750934 203 199 197
-3.472432 -6.979277 0.751110 150 142 127
0.272514 2.043748 -0.724827 136 120 101
-0.724069 0.257227 -1.370669 127 109 88
-6.227912 -2.241371 1.612898 134 130 138
-8.032687 -2.696167 1.364606 113 107 111
-4.060181 -6.241727 0.561744 237 231 219
3.271446 1.581966 0.861256 58 49 42
-4.749794 3.171078 4.482788 255 252 246
-3.517371 -4.869895 -0.401443 113 108 112
3.286626 1.614381 0.719226 90 82 65
-4.949863 3.358502 4.664171 255 252 246
-2.317866 -1.166693 -0.759946 173 147 136
3.033271 -0.153839 0.104800 147 134 126
-3.883565 5.205719 4.820915 75 70 54
-1.696451 -2.212824 -1.172854 104 94 88
3.705363 0.722708 0.716887 57 46 30
-0.787802 1.929452 -0.824403 117 100 82
-2.528048 -2.741129 -2.437468 24 21 16
1.810891 0.672628 3.222075 83 74 61
-0.849863 0.707318 0.018610 199 158 153
-0.686641 -2.147285 2.255381 97 88 75
-4.505686 0.198488 2.344516 112 102 79
-1.535436 -5.923232 1.564221 255 254 255
3.733208 0.895406 0.257237 152 142 121
0.341122 5.591132 0.450714 36 31 25
-1.916606 -6.236506 1.204414 200 200 199
2.975191 2.188776 0.385511 79 74 58
-0.993750 0.391709 -1.344738 124 103 83
-3.615701 -7.100760 0.837202 229 221 204
-3.111911 -6.715644 0.569226 159 150 137
-3.972674 -6.786076 0.078119 213 209 206
-5.232973 -9.037466 -0.867131 135 124 114
-0.366786 1.285215 -0.961451 183 161 149
0.276801 2.362150 -0.612161 95 80 63
-4.013072 -7.005998 -0.744331 44 35 26
0.082487 0.100008 -1.364696 108 81 56
-1.570727 -2.984332 -1.334843 20 16 14
-1.847742 -3.087436 -2.478009 100 94 90
2.327543 3.205058 2.631252 73 62 52
-1.080558 -1.612654 2.534326 53 41 32
2.050529 1.787969 1.734872 86 86 83
-0.549766 0.688458 0.430303 165 124 126
-1.390279 -1.940122 2.398718 118 104 91
2.357243 3.815909 0.972089 164 156 139
0.252572 7.969162 4.660882 43 36 26
-3.100393 -3.610921 2.226387 124 111 88
1.756162 4.993120 1.037386 107 98 89
-1.287550 0.576754 -0.038369 185 154 151
-2.408156 -4.983264 1.547384 114 95 62
3.346964 0.917785 -0.534410 114 104 90
-2.465768 -6.510588 1.117414 251 245 244
3.189910 0.525789 -1.066057 98 87 77
-1.802393 2.276687 -0.772549 162 144 117
-3.483917 -6.296957 1.231214 255 255 255
1.156397 0.361654 -1.227236 150 127 101
-3.469810 6.528517 4.481396 185 177 160
-3.366926 -6.853315 0.877295 126 119 115
1.024080 0.355382 -1.233899 154 131 105
-1.070596 4.112157 2.015778 102 59 56
-6.585804 -2.180187 1.643108 254 252 255
0.556193 1.488811 -0.874672 149 125 99
-1.179107 0.587828 -0.030426 190 157 152
-4.092269 -4.746591 -0.675061 123 113 95
-0.528712 0.711517 -1.211146 166 142 120
-0.810213 -0.181904 0.107747 189 153 149
-1.610090 -6.933124 -1.904633 140 134 125
-0.777394 0.444475 -1.318504 123 100 74
-2.422293 -0.610248 -0.683546 94 83 75
2.923496 1.104482 3.118288 97 86 68
-1.511871 -2.484605 -1.908788 66 56 50
3.239793 -0.150123 2.647206 24 14 11
0.731635 6.180923 3.424758 82 72 56
-3.945328 -2.325130 -2.123943 122 121 112
3.158047 1.285210 2.624540 64 54 40
-0.632293 0.142904 -1.403162 149 132 102
-1.591418 -1.405748 2.592960 67 56 42
-0.640060 -2.132698 2.195778 55 43 38
2.880677 2.101298 0.477366 165 159 147
0.023487 1.066854 3.492205 196 183 164
-4.452598 -1.594325 2.833673 255 253 253
-4.249453 -1.760326 2.698364 255 254 254
2.334436 3.966839 0.732173 0 0 0
-3.208665 0.226204 2.858267 122 122 110
-2.046252 -7.796059 0.395463 158 150 133
-2.627829 -1.677573 3.519241 175 164 144
3.402091 1.813495 -0.633545 117 106 96
-3.773340 4.183804 4.664283 122 113 89
-0.656722 -2.088489 2.261536 90 83 66
1.629006 0.650308 -1.099430 109 89 66
-0.539280 -2.168074 2.165737 94 82 67
0.501692 1.432524 -0.905555 125 101 77
-5.842823 3.187670 3.340235 66 60 48
-0.501728 -2.841702 2.202541 96 84 72
-0.576265 0.729757 -1.215366 135 112 89
-1.981058 -4.846741 1.952360 157 146 130
-0.774696 0.416568 -1.323005 137 114 89
-2.159327 -6.304912 2.087589 177 164 141
3.545206 -0.510990 2.570194 65 56 42
-6.116597 5.903417 3.908702 206 202 179
-2.382067 -6.047575 1.203725 175 165 159
3.616503 0.387873 1.512123 164 154 137
0.875437 4.967591 3.120359 54 60 73
-7.083282 -0.706772 1.966769 142 129 91
3.565677 0.911536 0.869756 0 0 0
-4.444686 6.751529 3.783596 147 140 118
-7.354245 -1.115081 1.966867 118 105 70
2.943625 2.169153 0.524923 103 98 84
-8.145615 4.787771 2.928995 192 185 163
-2.227007 -0.947578 3.162453 196 185 174
-2.449643 -4.394745 2.388842 113 99 82
3.780672 0.548679 -0.347324 120 107 85
-8.008594 5.460783 2.797065 97 93 70
-3.877133 -6.756742 -0.112223 60 53 48
3.852709 0.552616 -0.818865 83 74 63
-0.239323 2.956968 1.655393 216 182 178
-2.499774 -1.014774 3.283741 0 0 0
3.623766 0.593130 -0.911291 57 48 37
-0.390898 2.933935 1.641374 232 195 190
-4.679323 -2.235626 2.743710 181 171 166
-3.307367 -6.437325 1.282305 255 254 255
2.235898 0.494560 -1.089888 119 98 78
-0.351434 2.965847 1.612931 231 196 190
-3.675879 -6.137951 1.220166 161 152 138
1.105302 1.153788 -0.951016 121 99 71
-3.597249 -4.894465 -1.441162 97 97 93
0.543563 0.563823 -1.207370 158 134 108
-1.100907 3.080114 1.417087 87 51 49
-2.903512 -1.439090 2.936486 169 162 162
0.471143 0.527033 -1.205641 132 108 82
-3.748353 -5.675842 1.586563 171 161 137
-3.748353 -5.675842 1.586563 171 161 137
-0.804457 1.664756 -0.916414 154 131 103
-1.110577 0.626210 -0.030158 85 52 44
-3.755198 -1.351652 2.801449 161 155 145
-0.891172 1.543035 -0.957834 137 108 86
-3.103278 -4.445411 2.020615 128 118 95
-1.594514 -3.045254 -2.347234 34 31 36
2.395989 0.495586 4.318154 35 23 18
-3.135236 0.097858 2.753271 248 245 229
-3.677957 -4.736643 -2.316492 74 73 75
2.863791 -0.840476 2.941721 51 44 37
-3.150590 0.105800 2.764752 248 245 229
-3.677957 -4.736643 -2.316492 74 73 75
3.081811 1.447034 2.020414 115 105 89
-7.357554 -5.451643 0.414846 173 163 142
3.473722 1.613612 1.956855 109 101 84
-3.307543 2.979541 5.054667 74 61 38
-0.362684 1.271918 -0.961313 50 27 12
3.025768 1.594004 1.265719 160 150 129
-1.201633 3.877628 4.530565 173 164 143
-1.968636 -1.176609 -1.810581 62 59 59
1.723068 4.179426 1.986547 146 140 126
-2.599453 5.870429 5.687001 121 116 100
-2.635216 -4.665304 1.860416 65 58 46
3.270924 1.526136 -0.110304 169 161 146
-2.403555 6.189803 5.870192 55 46 28
-2.744493 -4.486180 1.486655 61 50 38
-6.162203 -1.231660 1.910515 199 192 170
1.733907 0.329699 -1.209225 146 124 97
-4.254092 4.282485 4.450392 215 205 187
-4.094697 -0.867709 2.628833 107 95 72
1.582424 0.274449 -1.256365 133 110 88
-3.450865 0.481502 2.419297 80 60 35
1.199177 0.831651 -1.076079 122 99 75
-4.091697 3.926896 4.151456 233 223 202
-1.595137 -5.500710 0.186818 185 179 165
-4.878784 -3.093502 1.887782 64 51 31
-2.427599 -0.605730 3.204161 110 101 92
-0.423970 -2.153619 2.248244 88 77 65
-0.549104 -1.914593 2.240515 61 49 37
3.350824 0.065186 3.346873 93 82 68
-2.904915 -7.546350 -3.392885 91 75 59
-3.673833 -1.234597 3.463245 159 149 129
-5.962003 -1.566522 1.580500 105 103 113
3.756103 1.770639 2.149457 171 161 145
-1.429620 8.074710 3.899960 62 54 37
-2.774821 -3.770576 1.049612 166 156 138
2.210600 4.041232 1.030619 133 128 110
-9.055508 4.890557 2.690134 181 177 154
-2.566889 -5.020566 1.660594 100 82 53
3.088612 0.231024 -0.797552 170 160 144
-2.571352 -4.930138 1.400552 190 171 160
1.544012 0.202317 -1.177057 183 153 128
-0.586472 0.545613 0.813368 184 154 148
-5.432262 -2.603965 1.665852 251 246 234
0.980277 1.356152 -0.906219 120 96 77
-2.538130 -6.431470 1.260612 182 176 166
-3.570137 -6.552130 1.385747 251 247 249
-0.053930 0.639444 -1.217646 140 116 90
-3.516338 -6.421282 1.338931 157 153 155
2.893079 0.043307 3.340195 78 67 56
-0.548758 0.715372 0.369881 171 135 135
0.305212 -6.753974 0.691960 42 36 29
3.541550 -0.082289 3.212128 47 37 27
-0.600126 0.731611 0.231374 181 144 139
0.315802 -6.772836 0.664731 227 221 214
3.173814 1.127067 2.811080 125 115 99
-1.471792 7.019293 0.823093 99 97 86
-3.141301 -6.670974 0.827923 219 217 214
-2.016078 -5.345289 0.593162 217 207 201
3.363714 -0.465346 3.114113 79 68 57
-1.173145 0.600945 -0.024508 75 44 38
-3.887935 -2.577665 -2.150651 50 49 45
3.283653 1.561775 0.607558 112 103 90
-1.325264 0.576672 -0.054561 182 148 142
-1.244519 1.110914 -1.048095 0 0 0
-0.538936 1.155974 -1.051179 0 0 0
-1.170335 0.479911 -0.049669 189 157 152
-2.682577 -1.839848 3.528011 194 180 163
-3.401239 -1.500837 2.868464 150 144 156
2.854978 0.119299 3.758691 53 46 39
-1.211342 0.600264 -0.044025 78 46 40
-0.345689 -4.983172 1.944483 203 197 185
3.737655 0.580862 -0.472456 165 155 137
-0.751918 0.750104 0.001715 183 146 139
-1.174388 -5.663627 1.814119 180 175 180
0.725181 0.620011 -1.175907 156 133 103
-2.553309 0.993137 3.640382 118 106 80
0.227186 -5.349257 1.185799 140 133 127
-0.022681 0.309110 -1.328746 174 152 117
-3.161773 0.127452 2.797976 75 70 51
-3.297323 -6.362861 1.424507 254 250 248
-0.588958 -5.632899 1.004856 228 226 225
-3.054633 -6.568122 0.807687 222 222 218
2.628779 1.454785 -0.714573 98 89 78
-1.548529 3.653928 5.211364 85 75 52
-3.839643 -9.343475 -0.767245 66 57 48
-0.357545 1.537584 -0.970794 189 168 149
-1.393790 4.050915 5.043012 108 96 68
-1.865116 -3.134886 -2.370078 108 106 107
2.273855 3.996794 0.772058 101 98 82
-2.128153 -0.270600 2.985318 225 215 209
1.874119 3.845283 2.234066 154 151 144
0.625740 5.210157 5.243700 79 70 59
-2.400328 -2.126018 2.303054 84 65 52
0.019200 -4.226095 2.085972 137 127 113
2.530307 2.357532 -0.508071 98 90 80
-1.701032 -5.776451 1.647642 249 248 252
0.016231 1.286559 -0.988297 150 131 110
-3.188477 2.134311 1.733416 0 0 0
0.184108 -5.433001 1.147615 188 181 174
-0.047871 -5.442887 1.159769 93 87 80
-0.308623 1.421330 -0.878560 137 109 94
-0.629970 8.498082 4.262745 90 86 70
-0.682761 -5.313823 1.025558 83 79 77
1.603337 0.671383 3.067110 77 68 55
-5.245502 -2.984053 1.344233 74 64 58
1.138623 3.840186 -0.116868 118 100 79
-4.083109 -7.072955 0.147838 107 102 84
-0.333576 2.891543 1.442733 203 166 161
-1.509072 -7.164155 -1.458214 120 111 102
-1.605909 -2.193501 -1.178113 93 86 82
0.457290 -4.210887 -2.760286 82 71 55
-1.699296 -1.201526 2.666255 73 59 40
2.192217 1.118698 -0.623039 143 138 122
-0.675894 1.175078 0.156818 183 146 141
-2.672292 -1.028478 2.422450 197 191 187
2.022223 1.833017 -0.684067 139 124 103
-0.626693 5.799001 0.423185 121 112 83
-2.635890 -1.067658 2.417395 243 241 234
-0.043256 0.933619 -1.112469 173 151 123
-0.635486 5.866218 0.430172 121 112 83
-2.572226 -1.126293 2.357063 123 117 103
1.733374 3.441968 4.418366 75 64 54
-0.384973 5.681179 0.407282 125 110 88
-2.462887 -4.165570 2.392326 62 52 36
1.768902 3.102307 3.750779 77 67 58
-0.099104 3.715817 -0.161322 160 129 97
-3.404617 -2.396558 2.145896 84 74 51
-2.418754 -4.919473 1.376120 159 150 141
-0.225775 3.066331 1.389677 196 147 152
-3.169106 2.840424 4.983564 114 101 81
-6.000138 -1.476669 1.671102 88 90 93
-5.922590 -1.372057 1.641357 213 209 211
3.174785 1.802805 1.041066 41 33 16
-3.147325 3.347581 5.112257 151 139 113
-1.380405 -5.947064 1.003485 90 89 80
3.178957 1.803074 1.042653 41 33 16
-4.898913 0.918397 3.548100 107 93 66
-1.159450 -5.839460 0.855003 118 117 121
-0.203571 3.227993 0.958481 205 169 167
-3.453315 3.499354 5.204476 163 146 120
-5.432642 -2.764236 1.263898 126 115 101
-0.547753 3.234748 0.879987 109 68 64
-4.589949 3.067216 5.037062 128 116 86
-7.292035 -4.805955 0.751948 51 40 26
-0.965171 2.167483 0.339775 209 174 168
-3.476376 -7.048708 0.218317 116 109 90
-7.653602 -5.457902 0.529074 57 47 33
3.234538 1.602272 0.839219 164 155 142
-2.016480 4.940947 5.665884 161 149 123
-9.301193 -7.179883 -0.257042 168 163 147
3.263707 1.729133 0.399335 99 80 60
-1.713450 -7.258532 -1.766464 66 54 49
2.016221 3.198513 0.769820 120 112 97
-5.245885 2.939370 4.358785 255 251 245
-0.875843 -4.092653 -1.655317 31 25 19
1.376335 2.393958 -0.301208 132 126 122
-1.425482 -3.064110 -2.066451 72 66 62
0.820371 2.532511 -0.978686 118 98 87
-4.767085 3.862477 3.798627 144 136 112
-2.318431 -0.946850 -1.789251 77 75 74
2.287826 2.845398 3.762193 46 40 27
0.688559 -0.602197 -1.510163 196 181 160
0.207820 0.675321 -0.063653 155 151 135
-1.474111 -1.923622 2.428652 59 48 30
-0.174868 3.266478 0.869940 189 163 134
-1.578925 7.962769 3.939580 142 134 115
-2.724882 -1.021045 2.448189 176 172 170
-4.573034 -0.373610 2.801121 165 143 115
-4.646768 -2.657434 2.708254 162 150 124
3.581814 1.426526 0.357987 62 43 23
-1.063751 3.021107 1.571375 216 179 175
-0.402878 -5.343687 1.809654 165 158 152
1.080044 7.030308 1.951036 156 147 130
-3.993947 -1.254793 1.829344 236 231 221
0.620422 5.409289 1.348893 155 147 130
-1.157624 6.396964 0.687588 104 95 74
-5.807440 -2.460513 2.170864 246 240 226
3.035034 2.185708 0.198118 51 44 38
-1.227113 -6.078835 1.303073 102 101 105
-1.219807 1.479715 -0.998016 118 94 71
0.206817 3.472217 -0.226207 68 50 24
-1.023115 -5.651682 1.068690 91 85 79
1.811046 3.231836 4.307218 45 36 23
-2.648386 0.536576 -1.373507 22 24 20
-2.112938 -6.196817 1.127167 85 84 82
1.811046 3.231836 4.307218 45 36 23
0.061350 1.111357 -1.044130 177 157 130
-5.069755 -2.972156 1.165797 79 69 57
3.082814 1.094090 3.184742 105 95 81
-1.408867 -8.331123 -0.042687 117 111 101
1.865769 3.232996 3.649885 85 76 65
-0.290611 -7.460486 -0.097413 157 151 140
3.171048 1.285425 2.628679 48 38 22
-2.190167 -0.044933 3.353321 88 77 65
-0.353738 -7.522399 -0.199929 52 47 40
-0.290687 2.950284 1.656869 100 65 61
-0.037313 2.150258 4.328359 61 51 37
-0.362519 -7.595155 -0.336957 72 65 58
2.194682 1.926234 1.485312 46 53 57
-2.751332 0.088238 0.053821 111 107 105
3.645524 0.685590 0.713648 156 147 126
-0.234499 1.492658 3.487987 60 54 47
-2.741800 0.128025 -0.175235 105 99 93
2.382287 3.748780 1.167866 164 156 139
-3.287129 0.168161 2.831423 96 91 77
-2.268931 -1.397226 -0.849246 129 113 103
0.776630 5.635218 1.437107 158 156 141
-0.717493 -6.580483 -2.728771 25 23 20
2.444647 4.009556 0.056363 97 92 82
-1.478413 1.192114 -1.148166 156 133 111
-1.497468 -1.905357 2.900550 51 39 27
3.061352 -0.048846 3.268038 35 24 14
-5.067501 3.759752 5.243234 200 191 170
-0.358137 -2.664960 2.320424 32 26 22
-0.358137 -2.664960 2.320424 32 26 22
3.103683 0.423158 3.318375 93 85 69
-0.698214 -3.701559 2.361576 48 36 26
2.274442 2.340841 4.085470 37 28 17
-0.675579 -3.553285 1.964954 84 75 64
2.718042 1.953852 2.909027 139 129 115
-7.955209 4.520310 3.686987 122 115 93
-4.090885 -1.072239 1.818015 227 221 215
-0.694762 3.009990 1.505072 77 67 53
-8.343208 4.804780 3.847267 122 115 93
-1.565888 -6.031478 1.481621 182 177 183
2.319516 3.257229 2.688349 162 157 141
-3.020591 -6.591754 0.891886 205 207 207
3.625089 0.421433 1.600888 62 54 37
-0.659910 8.241293 4.414904 86 81 65
-0.483536 -6.725614 0.163041 47 41 37
1.907829 3.845812 1.823703 191 189 186
0.774127 6.505871 3.393147 88 84 66
-1.896347 -2.670609 -0.866859 35 8 124
3.459088 1.975992 1.143305 172 164 149
-0.723370 -6.518952 -2.507281 30 28 25
2.191208 2.128190 0.680126 80 81 85
-0.726972 7.036400 1.011961 85 76 51
-0.885220 -4.390963 -2.060480 26 22 20
3.530859 1.122786 0.339618 82 74 58
0.545160 7.845640 1.238528 72 67 50
-1.232309 -2.839942 -2.265969 86 80 73
1.614616 4.946090 0.910224 59 54 51
-1.161154 0.602729 -0.013971 82 48 44
-1.640098 1.246856 -1.076078 109 85 63
1.069458 6.283351 0.954016 55 52 57
0.234058 6.095177 0.621323 94 84 66
0.161497 -4.789038 2.728617 87 76 60
3.529777 1.049580 -0.568051 159 152 136
-0.729468 0.757947 0.019749 88 51 44
0.162747 -4.781296 2.726919 87 76 60
3.097929 2.363981 -0.431439 93 87 77
0.734898 5.015978 0.312429 0 0 0
-0.384762 -3.169976 2.120206 100 89 81
-0.229647 1.308840 -0.947497 183 157 144
-0.259939 4.097741 -0.018265 130 117 86
-1.535800 -6.114240 1.289249 199 201 201
-1.141335 2.223146 -0.757032 150 127 103
-3.341566 2.245070 -0.712060 68 64 66
0.265796 -5.623599 0.975120 85 79 60
-0.624701 1.043735 -1.103932 117 93 71
0.434309 -7.096229 0.292948 131 124 117
-1.109093 1.572618 -0.960527 106 83 59
-1.030900 1.979557 -0.753669 123 105 79
-1.238312 -8.072158 0.134571 151 146 134
-1.200142 1.363068 -1.032969 125 101 75
-2.193561 1.050113 -1.169940 144 126 98
-1.126260 -3.870356 -1.560000 36 30 29
-1.133106 1.224158 -1.075426 156 134 109
0.630291 1.450817 -0.890824 118 98 71
-0.841504 -4.097400 -1.637238 37 31 25
-1.283032 1.181042 -1.102756 127 105 83
0.175840 0.882045 3.540628 165 156 129
-2.098525 -3.175329 -1.567750 30 17 18
-2.642882 0.364596 -1.292488 88 84 82
-1.526027 1.309578 -1.115417 152 135 109
2.286039 2.775346 4.011693 0 0 0
-3.505095 0.207257 2.938035 241 235 221
-1.006626 -1.485379 2.615454 65 54 40
2.322415 2.944608 3.268444 136 130 118
-3.116801 2.947194 4.920002 150 137 114
-3.435821 -7.236926 5.466586 65 54 40
-1.519655 -1.925501 2.729952 83 70 54
3.060319 1.655055 1.329559 119 109 93
-3.137238 3.322869 5.169128 0 0 0
-0.652845 -1.902191 2.339205 56 45 29
2.953815 0.013531 3.355830 78 67 53
0.945080 6.057282 4.311931 122 117 103
-1.242496 -4.571054 -1.990391 27 20 14
1.681504 4.129380 2.023441 154 149 134
0.859958 6.238801 4.175998 0 0 0
-1.400578 0.899829 -1.151404 183 156 133
2.828953 2.059555 2.253954 166 157 144
-0.879901 -6.570465 -3.031873 79 73 67
-0.087720 3.616688 0.062606 45 38 31
-2.642534 0.420024 -1.392781 20 16 15
-1.279721 1.974658 -0.838350 128 104 80
-0.106459 6.942394 1.220288 125 109 60
-4.228675 -1.115886 3.059807 108 98 74
-1.436821 -5.634305 1.613090 0 0 0
1.960438 4.572031 1.678434 142 137 123
-0.592456 -0.424620 -1.588186 128 114 87
-3.469367 -0.478952 2.482358 0 0 0
-1.366389 1.230557 -1.085697 122 102 79
-1.510850 6.540213 3.510461 147 142 126
-0.467338 -7.303059 -0.650774 61 55 49
-1.278300 1.608045 -0.958627 154 135 106
0.688049 7.117343 1.534425 89 84 72
-0.936756 -5.460609 1.756541 255 253 255
-0.381331 1.212936 -0.731649 211 200 191
0.155423 -5.434412 0.978490 120 107 88
-1.160146 1.864535 -0.867558 163 141 112
-9.040102 -7.226469 -0.148414 69 59 39
2.116695 3.009929 4.058503 95 81 64
-1.211901 -5.811819 1.282578 242 239 244
3.494378 0.949858 0.464356 135 127 110
-0.396920 0.628611 -1.224739 137 120 95
-4.922813 -3.726708 2.355229 102 87 66
0.927884 5.980709 0.639856 36 34 35
-0.730841 -2.118761 2.264396 58 47 33
-0.877168 0.903211 -1.175742 167 144 114
-2.533224 1.629334 3.899839 74 63 45
-1.257575 -4.102007 2.453011 55 45 29
-1.426607 1.313510 -1.052853 120 100 77
-3.670198 3.593840 5.186002 165 148 122
-1.257575 -4.102007 2.453011 55 45 29
3.289821 1.704082 0.432602 164 149 131
-4.273989 -9.035316 -1.032064 89 84 68
-0.036493 -4.469066 -2.752976 17 16 20
2.237258 2.327954 3.300296 70 62 53
-8.042717 5.315781 2.594309 199 195 177
-0.036493 -4.469066 -2.752976 17 16 20
-1.243808 1.876447 -0.863004 134 113 89
-5.286567 -1.769887 2.112262 168 158 144
-1.615918 -1.370254 2.599309 80 66 49
-0.952202 1.611181 -0.936185 134 109 86
-4.120903 -0.686932 1.999339 125 124 107
2.334519 2.418162 0.366836 126 127 128
-0.688511 0.549424 0.694308 172 153 144
-4.096969 -0.893057 1.923873 243 241 228
-0.330064 3.244056 0.890923 86 55 53
-0.446845 -5.615582 1.747153 255 251 240
1.851448 4.013185 2.229530 72 71 64
-0.360100 -5.533129 1.716715 117 108 95
-1.601421 -3.461638 1.652687 215 206 193
3.244045 2.186303 -0.514000 113 104 93
0.053973 1.917345 -0.791629 151 134 104
0.070073 -5.264029 1.451353 84 78 65
0.861712 5.369312 4.362869 123 117 105
-2.490141 -5.956919 1.531928 169 163 157
1.901678 2.322687 3.819727 86 75 62
-0.109649 1.340516 -0.997571 153 136 110
-3.382282 -6.515431 1.461506 128 119 110
-1.201959 -5.615572 1.317681 164 164 164
2.475410 3.496907 0.702693 155 151 132
-5.159495 4.341995 4.414869 89 84 72
-0.105375 -5.557683 1.153951 78 72 65
3.270211 1.560041 0.928069 173 167 153
-1.081074 0.369755 0.680623 88 40 37
-2.937548 -3.348403 1.164355 225 214 197
3.386123 1.251213 0.714868 162 157 147
-0.719963 1.066331 -1.097452 125 113 87
-2.733014 -8.156084 -0.476025 39 31 14
3.398071 -0.300066 -0.809423 171 153 133
0.502073 5.000363 0.280033 0 0 0
-4.270167 -1.799212 2.774344 255 250 240
3.544009 -0.302821 -0.855971 85 70 49
0.832587 -4.899354 2.301605 142 131 120
3.502965 -0.163980 -0.926413 96 86 72
-1.124731 -2.511957 2.124702 138 130 115
2.910722 3.835235 0.278166 71 70 64
-5.519703 -2.059233 2.545469 254 252 253
-3.035118 -3.626740 2.226051 95 85 64
-4.065208 -1.164941 2.105106 255 252 237
-0.332625 1.064338 -1.038204 119 90 70
-0.296610 0.204226 -1.363243 135 118 92
-2.003299 -2.670363 1.983473 62 56 44
-0.793296 2.070739 -0.774556 106 82 58
-0.337752 -4.992088 1.934727 212 198 181
-0.776743 1.845944 -0.849687 129 106 82
-1.088438 7.478491 4.488658 121 117 99
-0.399072 -5.171840 1.953927 141 131 117
-0.774875 1.848723 -0.850716 129 106 82
-0.923628 0.442980 -1.274846 153 136 110
-4.024759 -0.885597 1.937947 130 128 117
-0.861753 1.460873 -0.991613 178 155 129
-1.640797 -3.293426 1.734046 75 66 49
-0.794222 0.538086 -1.280033 124 104 79
-0.518481 2.549884 1.133148 79 77 66
-0.325144 -5.515187 1.692627 110 100 84
-0.802546 0.539889 -1.281510 169 149 124
-3.886572 5.203142 4.820469 191 188 180
-0.314918 -5.439113 1.691451 110 100 84
-1.319785 1.203535 -1.092282 139 119 94
-2.758671 4.515967 5.319080 249 241 228
-0.096355 -5.439198 1.520343 177 171 164
-1.370100 1.269538 -1.076993 132 112 89
-1.041808 0.392505 0.709903 132 108 104
-0.095004 -5.434004 1.519961 177 171 164
3.918821 1.045384 0.213412 120 101 80
-2.916177 -3.386373 1.174010 99 88 70
3.564856 1.117260 0.243035 127 106 87
-0.420549 -5.942701 0.959647 62 55 48
-4.574280 -3.900757 1.178139 161 155 145
3.441498 -0.201680 -0.834961 92 82 68
-1.983213 -5.286721 0.835005 247 241 235
3.444953 -0.170720 -1.132367 64 54 41
0.695319 7.199938 1.537082 84 83 71
-4.255340 -6.021129 0.506828 146 135 122
-1.470616 -8.262976 0.037956 128 123 107
1.764408 -0.148559 -1.272205 172 152 129
-2.853959 0.117094 0.508122 44 42 39
1.778990 -0.139578 -1.291141 177 154 132
-1.224643 3.653650 5.318437 105 91 76
0.803176 -1.389810 0.198116 187 181 177
1.445336 0.159819 -1.244589 108 78 51
0.207751 3.475749 -0.231232 81 67 45
-2.773000 -0.348576 0.111581 227 188 158
0.496330 1.325117 -0.968204 133 110 84
-1.290058 -3.479275 -1.522555 86 76 73
-0.397179 0.886008 0.123645 115 103 98
-0.355890 0.926419 -1.130966 144 122 93
-2.126200 6.435709 4.432841 39 36 27
-3.036841 -0.123192 2.706738 111 101 85
-0.399423 0.908013 -1.135827 172 154 128
0.021563 8.007030 4.624400 74 73 60
-2.494641 -4.219937 2.401892 78 63 44
-0.447994 1.103945 -1.077227 111 82 62
-0.894273 0.429006 0.750360 125 100 98
-2.358056 -4.169132 2.313801 166 161 145
-0.398434 0.336180 -1.331362 146 123 95
-1.296101 0.374313 0.535785 187 157 152
-3.996939 -1.060253 2.029861 142 136 122
-0.784308 0.830705 -1.186746 156 135 115
-3.058851 3.561259 4.989470 103 97 82
-4.038442 -1.320083 1.899429 253 250 237
-1.013477 0.918150 -1.170569 152 131 111
-1.026794 0.387463 0.732545 165 129 125
-2.355248 -5.155313 1.874250 83 72 56
-1.292983 1.160899 -1.106824 134 115 86
0.189415 8.296137 3.680540 88 85 74
0.389359 -5.349675 1.718707 211 208 200
-1.334176 1.233025 -1.086450 169 149 126
0.834004 5.178427 2.568224 148 146 151
-4.600569 -3.030496 1.928854 83 65 45
3.684264 0.890347 0.778099 167 157 141
-4.076706 -1.254545 1.734064 152 144 127
0.161019 -5.430625 1.525288 72 66 56
3.185518 -0.272570 -0.284364 59 49 33
-1.364381 0.588129 -0.121943 66 43 42
-2.371910 -5.150954 1.437415 255 252 248
-3.115023 -6.609295 0.658905 98 93 83
1.178737 3.722710 0.003606 41 36 26
-4.201552 5.063386 3.198905 114 104 86
-1.961662 -5.583427 0.492963 44 42 29
0.477746 1.240033 -0.976862 134 114 87
-4.602476 -6.682167 0.390348 255 250 243
0.087981 0.806217 -1.137742 163 139 115
-4.379874 2.874679 4.615406 196 187 164
-9.031350 -7.248397 -0.062401 104 91 69
-0.581105 0.856551 -1.167236 132 109 85
-1.249331 -3.229105 -1.460122 28 21 17
-0.809864 1.641939 -0.917960 133 110 86
-0.403946 1.383675 -0.899422 62 39 20
-3.903052 -2.594742 -2.105040 177 171 166
-0.749264 1.148440 -1.077767 127 106 86
0.378634 5.830867 5.054756 105 97 80
-1.956089 -2.927735 -2.384443 128 126 125
-0.762710 0.440429 -1.322016 180 160 132
-1.478986 -0.043472 -1.512682 151 134 106
0.491028 -1.693323 2.440675 52 42 37
-1.197862 1.391459 -1.032748 163 143 116
0.266358 3.033766 4.439841 88 77 61
-2.670654 -0.954641 2.423363 179 170 157
-1.354547 1.237018 -1.083488 159 139 116
-2.492489 -2.106250 2.304630 167 148 133
0.515454 -5.248341 1.737144 232 226 216
3.042981 -0.164667 0.136065 52 40 32
-0.550108 2.951309 1.591990 116 84 59
0.514979 -5.252280 1.737501 232 226 216
3.024997 -0.273886 -0.045481 185 166 151
-4.084296 6.959944 3.019596 82 81 82
0.209402 -5.088703 1.674569 127 120 114
3.029435 -0.230767 -0.046987 84 43 35
-4.308794 6.923141 2.983363 196 194 195
-4.771179 -3.000608 1.914236 136 119 95
3.706751 0.836356 0.061123 174 164 143
-0.237096 3.075051 1.357728 151 110 110
-0.818634 -5.573571 0.719526 65 58 59
3.413739 -0.304270 -0.392292 93 85 68
-0.578835 0.674595 0.434663 180 143 146
